# .PCD v0.7 - Point Cloud Data file format
VERSION 0.7
FIELDS x y z
SIZE 4 4 4
TYPE F F F
COUNT 1 1 1
WIDTH 1285
HEIGHT 1
VIEWPOINT 0 0 0 1 0 0 0
POINTS 1285
DATA ascii
0.074593171 -0.058021896 0.045449387
-0.072593302 -0.062066369 0.13953957
-0.029249575 -0.063297249 0.050625432
-0.068366595 -0.031503264 -0.038003549
0.21933097 -0.072923832 -0.030212797
-0.32959691 -0.021148002 -0.12605064
-0.033887699 -0.059469942 -0.084538192
0.2304278 -0.042633213 0.040397055
0.26466528 -0.049956784 -0.039044589
-0.014866187 -0.061693847 0.15947685
0.14613761 -0.0053564901 0.0040873033
0.22381178 -0.07199727 0.030917319
0.127823 -0.0072528403 0.013098662
0.25248796 -0.086193196 -0.00073406624
0.096379079 -0.098616794 0.10213465
-0.05141459 -0.060797133 0.091817312
-0.33141911 -0.019684693 0.13164617
-0.27838969 -0.00038779125 0.014723898
-0.2210782 -0.0006582666 0.012947992
0.20125927 -0.074649297 0.028909503
-0.033539757 -0.095119216 0.068192221
-0.024667569 -0.079918936 -0.070926465
-0.27066946 -0.034316123 0.066268817
-0.28327531 -0.0088727959 -0.0020991534
0.030991856 -0.069319345 -0.092281193
0.26049948 -0.039389055 0.038917661
0.095769875 -0.086152196 -0.0035519032
-0.035553712 -0.06444224 0.049480781
-0.13503462 -0.027437679 0.035903379
0.22216797 -0.085973814 0.0049073086
-0.13086754 -0.06740284 -0.034391206
-0.20035465 -0.011728714 -0.010515751
0.016057951 -0.050067067 0.040328301
0.033102937 -0.095019124 -0.11947668
0.10382432 -0.010578278 -0.020815698
-0.025586799 -0.065386176 0.11421673
0.055293277 -0.083833843 -0.030612919
-0.29098347 0.0082466472 0.018136449
-0.082740389 -0.061709143 -0.13774066
-0.2910721 0.037287224 -0.0023959486
0.053754807 -0.083260208 0.097091548
0.19973235 -0.067321166 0.03453736
-0.29399833 -0.028705688 -0.092831835
-0.12512134 -0.055435136 0.21889412
0.28087488 -0.043473165 -0.037283048
0.16365325 -0.069219589 -0.033080745
-0.1112379 -0.0060072471 0.0090302741
0.045719426 -0.07217706 0.12413264
-0.31933141 -0.029773429 0.072234139
-0.058108307 -0.063255787 -0.082181364
0.23719865 -0.076768942 -0.026112359
-0.059399713 -0.056686208 -0.03934934
-0.04043173 -0.066985443 -0.027039599
-0.31350043 0.11398067 0.00048698476
0.077505514 -0.072178736 -0.12875292
-0.2907123 -0.025612913 0.10609531
-0.08264903 -0.063057102 0.10977063
-0.065787442 -0.058826782 -0.19648224
-0.29323864 0.074899107 0.0021078526
-0.068930276 -0.085550919 0.0081186742
0.030003626 -0.062845163 0.041528203
-0.0014098557 -0.063425526 0.1397737
0.22092894 -0.060642589 0.037672319
0.30820948 -0.021201346 -0.019423019
-0.15040401 -0.049794808 -0.30595905
0.096730664 -0.071956396 -0.02796009
-0.11784995 -0.041631766 0.040362693
-0.31204385 -0.029088784 -0.072488569
0.065009929 -0.083654761 0.014379282
-0.18410581 -0.070056841 0.026761003
-0.27627468 -0.026959706 0.019024972
-0.064320065 -0.011918054 0.022561748
-0.097734831 -0.080515578 0.02232644
-0.31686977 -0.018962067 -0.13752367
0.20320308 -0.070341974 0.032217197
0.049376763 -0.055822589 -0.067929469
-0.0069618803 -0.066866316 -0.10550848
0.072192132 -0.084433936 -0.028249802
-0.0046370258 -0.06548892 0.11687912
-0.086694703 -0.058036499 0.15416223
0.10290858 -0.095565453 0.12439635
0.044916116 -0.056730673 0.086868428
0.049078997 -0.062509909 0.088167451
-0.30536398 0.092269465 -0.0015251987
-0.11820224 -0.047109339 -0.2747072
-0.081064641 -0.069709323 -0.17289354
-0.05067154 -0.067953914 -0.08879327
-0.31309819 -0.031321671 -0.076944567
-0.24965242 -0.065369055 0.0036752063
0.026086222 -0.078119025 -0.10642259
-0.24496441 -0.033112045 -0.021848988
-0.0584445 -0.065270424 0.10591845
-0.21167296 -0.063816212 -0.024586014
-0.24840304 -0.041354936 0.034336902
-0.14275433 -0.015629422 -0.025998259
-0.14932671 -0.0086088749 -0.013139333
-0.017627966 -0.059052683 0.1694044
0.076715127 -0.074253701 0.13033688
0.038652245 -0.073044404 0.11011213
-0.22964349 -0.026697502 -0.0027424402
0.059203833 -0.030313771 0.037510902
-0.24661908 0.0065957326 0.018889517
0.1240967 -0.046141714 -0.040845245
0.26741907 -0.04677308 -0.039295759
-0.31793809 -0.021158893 -0.12717649
0.075665444 -0.084698714 -0.024072096
-0.088764377 -0.051454447 -0.20886543
-0.25132984 0.021440547 -0.01181679
0.014598296 -0.041136004 0.040297497
-0.22962072 -0.00060473901 0.0014913789
0.17262024 -0.01176009 0.022355882
-0.05265535 -0.056641169 0.21213703
0.21325067 -0.015583262 0.027236771
0.029722773 -0.073686466 0.11685083
0.21647681 -0.017760236 -0.029570308
-0.170184 -0.038945708 -0.037430298
-0.19139087 0.0027666774 -0.0071930955
-0.29352319 -0.034511849 -0.03873542
-0.32866135 -0.023001527 -0.11674672
-0.08710818 -0.054944292 -0.17781445
0.041569717 -0.06812603 0.042234138
-0.021868896 -0.10947767 -0.063118398
0.15023105 -0.011639807 -0.022199126
0.007795495 -0.07661812 0.043853939
0.084012941 -0.084298141 -0.02712569
0.091284372 -0.075913593 0.097613275
0.052466702 -0.080203019 -0.036775604
-0.11508319 -0.011943221 -0.022594549
0.06250374 -0.052404463 -0.040020607
0.052341554 -0.10185552 0.11497986
-0.28795391 -0.021660388 0.097505212
-0.20460051 0.0064589009 -0.017107243
-0.15833537 -0.04764498 -0.30777255
0.23300672 -0.017772328 0.0294798
-0.26982862 -0.042217061 -0.029095566
0.11607266 -0.01145785 -0.021961994
-0.027903406 -0.064815417 -0.041908499
0.32765153 -0.02090065 0.0076127197
-0.070937954 -0.057383575 -0.14240684
-0.052601747 -0.082813844 -0.03307553
0.01670232 -0.085943155 -0.0051395944
-0.085686266 -0.059116095 -0.14515802
0.101427 -0.084170789 -0.013133768
0.28838867 -0.020083237 0.024604529
0.07215111 -0.10072099 -0.10398147
-0.011641738 -0.053335615 0.15886843
-0.19700806 -0.0266056 -0.0016096868
-0.12909523 -0.053626209 -0.25094998
0.11082257 -0.065362588 -0.035966665
0.085702524 -0.061630849 -0.038316548
0.078923196 -0.081280604 -0.035345715
0.022402348 -0.07770516 -0.1127985
-0.090256341 -0.064245492 0.17254254
0.0010670982 -0.060919665 -0.04073061
0.31609592 -0.019369502 0.012413919
0.11479111 -0.080337465 0.021496464
-0.082996704 -0.059021056 0.18673503
-0.14623763 -0.045784339 0.30888617
0.060970996 -0.0575401 0.03259261
-0.0038933596 -0.038852312 0.039996713
0.082415521 -0.0054155425 -0.0045360643
0.17840731 -0.086378872 -0.0018301742
-0.28980279 0.019443281 0.00028739934
0.22373343 -0.0053789942 0.0032549468
-0.046857469 -0.084652215 -0.011931304
-0.008409502 -0.050456673 -0.040277008
-0.061449114 -0.0059343269 0.0084763877
-0.25818825 -0.016171891 0.0041359458
0.062340215 -0.054758929 -0.039710633
0.35443282 -0.040084146 -0.0070155738
0.17782974 -0.013629517 -0.024792194
0.013923277 -0.083352238 -0.031775653
-0.048306227 -0.070389032 0.041936263
-0.2326538 0.0064591076 0.012725338
-0.13147385 -0.062034629 -0.037009515
-0.080123074 -0.056956153 -0.22041364
-0.11992102 -0.069067009 -0.033197798
-0.10179135 -0.057335593 0.2209283
-0.30425751 -0.032942247 0.050388515
0.084079251 -0.0072977715 0.013207139
-0.10080569 -0.07946001 0.028487386
0.030536488 -0.076054528 0.11663309
0.13610983 -0.085865438 -0.0057299361
-0.25310758 0.031628009 0.0067711091
-0.017259788 -0.055537581 -0.0013553867
-0.047030717 -0.10655187 -0.068152167
0.10842906 -0.070722722 -0.10067201
-0.093367249 -0.08050438 0.031881422
-0.16261506 -0.079788059 -0.01962412
0.083158053 -0.065842964 -0.1170726
-0.060811911 -0.013222904 -0.024262283
-0.047106009 -0.053927172 0.15211189
0.052404895 -0.079204611 -0.13048205
0.079911746 -0.057986706 -0.034506027
-0.087758563 -0.057418186 0.21085857
-0.071316987 -0.060697328 0.16472267
-0.042570293 -0.076101042 0.0023769876
-0.10847319 -0.079118393 0.023085184
-0.041490957 -0.062182337 0.071948282
-0.071390182 -0.060909584 0.11175749
-0.072112292 -0.060961828 0.040680423
0.038029712 -0.072594412 -0.11229128
0.052334473 -0.0695315 0.11740686
0.026939645 -0.0062012644 0.010503976
-0.25147083 -0.039492641 -0.04441347
0.22641939 -0.060259402 -0.037820153
0.030869137 -0.073505528 -0.06661427
-0.27415466 -0.010354146 -0.0029653849
-0.040194295 -0.06905219 -0.083494395
0.05348799 -0.065618448 -0.026721001
-0.3213861 -0.018962793 -0.12320735
0.16868292 -0.00972699 -0.019071961
-0.021121237 -0.075619124 0.043845534
0.22978015 -0.04178334 -0.040287338
-0.0034592375 -0.0061978833 0.010478292
-0.07161653 -0.056871779 0.14718594
-0.10017566 -0.056401167 0.22184664
0.067342535 -0.075173452 -0.13052693
-0.058944475 -0.051766351 -0.18385491
0.04079451 -0.076755844 -0.1015796
0.051274665 -0.010661957 0.020924751
-0.056598205 -0.061794069 -0.090633839
-0.099084184 -0.0057388265 0.0069914209
-0.050530955 -0.063381113 0.13067059
0.31184575 -0.020252889 0.01677754
0.17819029 -0.01781589 -0.029702386
-0.04398416 -0.060496252 0.17678347
-0.045759 -0.1087352 0.00099590654
-0.00012762262 -0.075852111 0.046815366
-0.1779689 -0.080684125 -0.012861196
-0.08329004 -0.058967009 -0.18749225
-0.27731177 -0.030019289 -0.050392397
-0.28783971 -0.035531629 0.05842562
0.029022189 -0.065883934 -0.026721001
-0.054269493 -0.059906676 -0.18339095
0.14797027 -0.0092375726 0.017890371
-0.15254186 -0.05947265 -0.037463106
-0.20967676 0.029211707 0.012798985
-0.0032578257 -0.054138873 -0.11904228
0.096161202 -0.082779095 0.10831833
0.074466586 -0.07447999 0.13043566
0.10025839 -0.082401864 -0.02456554
-0.15477079 -0.036127895 0.0384495
-0.11126824 -0.055440404 -0.23177695
-0.051769406 -0.0061162589 0.0098583
-0.041254301 -0.066074699 0.039882749
-0.040021148 -0.054730136 0.19932202
-0.34062091 -0.016599525 -0.14736387
-0.068689749 -0.064304762 -0.1095453
-0.27487159 0.0069186948 -0.013673918
-0.32536778 0.096188478 -0.0010164458
-0.076995142 -0.063645557 0.11190747
-0.26124898 -0.0266975 -0.0031803998
-0.062947214 -0.07097061 0.061202534
-0.32230207 -0.040067494 0.0016098744
-0.040623151 -0.10074404 -0.07859765
-0.29351631 0.092430145 -0.0011086825
-0.043342046 -0.10214216 0.075471334
-0.093332879 -0.058955505 0.15498683
0.064971715 -0.086103588 -0.13280749
-0.24428594 -0.028082669 0.050777066
-0.26727217 -0.043989569 0.019100171
-0.24962732 -0.038035754 0.0086818105
0.044248231 -0.0779735 -0.11567309
0.07359051 -0.057672046 -0.044749476
-0.040675797 -0.054672748 -0.13969897
-0.0064240028 -0.075357169 0.048767097
-0.0069607249 -0.064671181 0.1250931
0.16927895 -0.071045943 0.031679235
-0.14734057 -0.066879667 -0.03458913
0.23396021 -0.030915529 -0.037616372
-0.29776871 -0.029978149 -0.060513653
-0.101129 -0.0074450658 -0.01356275
0.26728892 -0.08195585 -0.015786024
0.21742751 -0.039171293 0.03998528
-0.27555385 -0.0023645558 0.0032675697
-0.28270018 0.046515062 -0.002726695
-0.29630852 -0.0056102723 -0.0068785162
-0.016884837 -0.055662096 -0.10401167
-0.022660151 -0.01563872 0.027410669
-0.034786701 -0.09466593 -0.067996457
-0.24473447 -0.00038933087 -0.014731592
-0.13459091 -0.05300726 0.25806159
-0.19169632 -0.012885698 -0.015260884
-0.088695236 -0.055561893 0.23857728
0.28712246 -0.057485167 0.035002068
-0.28733289 -0.036543556 0.053381685
0.10948262 -0.020087276 -0.031445291
-0.32468572 0.11503776 -0.0007223498
-0.060256466 -0.08336883 0.01507012
-0.32988709 -0.019282855 -0.12481444
-0.059235308 -0.049925115 -0.20986606
-0.30548263 -0.043692973 0.01022523
-0.26525727 -0.012473796 0.0036697704
-0.31127885 0.11315808 -0.00031017311
0.13287371 -0.009327488 -0.018107448
-0.071073569 -0.051931407 -0.23804902
-0.32957089 -0.028120525 -0.086605832
0.058714047 -0.074841931 -0.058612712
-0.073563404 -0.054482963 -0.23890342
0.24598914 -0.037757248 -0.039656132
-0.16045251 -0.079028465 -0.021016873
-0.027087666 -0.019752856 0.03118868
-0.26558509 -0.031119512 0.038539555
-0.18063667 -0.08239951 -0.0021367553
0.26743317 -0.062090717 0.035679512
-0.24535824 -0.029274102 -0.04448165
0.0050683632 -0.052361604 -0.040026154
-0.30463976 -0.026717331 -0.10148568
-0.33851635 0.018335149 -0.0065175793
0.080924794 -0.068578094 0.1163972
0.044864118 -0.056536663 -0.055846587
-0.057544455 -0.041581493 -0.04035607
-0.28366637 -0.0030961917 -0.011794335
-0.13111556 -0.045181088 0.30837214
-0.0250622 -0.10866906 0.077236995
0.18651807 -0.039725602 -0.040111709
-0.0060256077 -0.060427066 -0.049893327
-0.020286083 -0.065738946 -0.11152241
-0.32648188 0.055122703 6.7346809e-06
0.069133729 -0.066239029 0.11784128
-0.34164637 0.11233836 0.00041045301
0.077108443 -0.073831685 0.13001716
-0.072166316 -0.080715291 -0.036000799
-0.1309192 -0.02936361 0.036857955
-0.30533952 -0.022132732 -0.10122199
-0.34654024 -0.015901037 -0.15029663
-0.24036007 0.033174753 0.0030714413
0.086140484 -0.066291243 0.041706901
-0.19825558 -0.069403157 -0.02321535
-0.061847404 -0.075442158 0.040338576
-0.069493964 -0.060670786 0.1662384
-0.26942942 -0.019652054 0.013508962
0.015183754 -0.086205363 -0.003148031
-0.022617735 -0.068519577 -0.092279159
-0.27016169 -0.015752381 -0.0055009457
0.13914569 -0.023438837 -0.034017045
-0.23737767 -0.039136749 0.027954612
-0.10953872 -0.054920249 0.20207122
-0.185803 -0.0098113753 0.0086197248
-0.084050938 -0.050918184 -0.21027222
-0.050938349 -0.079922311 -0.083054252
-0.011921725 -0.064977922 -0.12134019
-0.22777967 -0.022201465 -0.022141969
-0.058582537 -0.083650962 0.019256271
-0.058543839 -0.061930615 0.09160322
-0.23577192 -0.032361768 0.055341419
-0.21050031 0.0007028273 -0.013518982
-0.14920545 -0.059712801 0.03767186
-0.24046184 -0.016833875 0.0050034039
-0.047973666 -0.051849835 -0.17665559
-0.032585379 -0.02999755 0.037379924
-0.041988056 -0.065884359 -0.046281125
-0.084225729 -0.048878238 0.25241044
-0.25029895 -0.040771905 -0.038434155
0.024083493 -0.057910513 -0.039050013
-0.29029551 -0.043950867 0.014054586
0.15870281 -0.066033736 -0.035477277
-0.11263759 -0.065764144 -0.22243148
0.11809336 -0.064358421 -0.03617112
-0.043260168 -0.11651615 -0.077867702
0.31487638 -0.054351561 0.030497525
-0.012079973 -0.06359534 0.041747902
-0.086537793 -0.05352293 0.18904415
-0.32193077 -0.028952874 -0.07863991
0.30511689 -0.015596608 -0.011108162
0.030150674 -0.070825398 -0.11156329
0.25067735 -0.08545687 -0.0073393695
-0.18320504 -0.040642746 -0.036202099
-0.015372025 -0.070883736 -0.11535823
-0.077353075 -0.073071584 -0.036772568
-0.31716898 0.096931815 -0.0012326182
-0.14440896 -0.086366013 0.0019276734
-0.27206388 -0.05706241 -0.010695605
-0.23411372 -0.034269292 0.052703023
0.10225037 -0.012137981 0.022848366
-0.2873542 -0.055673957 -0.00071788568
0.29624382 -0.071625099 -0.025341718
-0.2587879 0.0078345733 -0.013764045
-0.21243869 -0.035624541 0.027063947
0.0086775199 -0.056917258 -0.071836501
0.065762199 -0.052442893 -0.040015545
-0.046612378 -0.087209299 -0.011305962
-0.068078347 -0.061720513 -0.1489955
-0.28508121 -0.030479237 0.050365571
0.13199364 -0.058917079 0.038425073
-0.10058883 -0.058195196 0.1890133
0.028953085 -0.090354256 -0.10503497
-0.22270088 0.010593969 0.019425476
0.02314377 -0.068472058 -0.097286418
-0.15326715 -0.017984802 0.028130211
0.16075009 -0.040938776 -0.040271528
-0.10911885 -0.055526171 0.23161815
0.21366641 -0.084545881 0.012221901
-0.072317347 -0.057137825 -0.14573017
-0.045130737 -0.055724561 0.039583534
-0.1111087 -0.050936833 -0.23377177
-0.23496586 -0.056445688 0.0240278
-0.055247638 -0.094547562 0.0082661659
0.021129206 -0.083821923 0.01966906
-0.07349547 -0.066408873 -0.091739826
0.034376547 -0.077850439 -0.11214597
0.017586261 -0.049019389 0.040466253
0.084673919 -0.098807938 -0.10131034
0.06820707 -0.0050663534 -0.0018838128
-0.28945607 0.011471409 -0.008821018
-0.25996405 -0.058268595 -0.014225284
0.041914523 -0.059644248 -0.096469328
0.10018542 -0.082430251 -0.017336225
-0.075420044 -0.072495833 -0.042824876
-0.24254864 0.037175294 0.0028865589
-0.032487486 -0.052356534 -0.16267174
0.23226583 -0.061402358 -0.037335411
-0.22246525 -0.072278798 0.0056563444
0.13136055 -0.085269138 -0.01025904
-0.30755749 -0.01918867 0.11616523
0.29687077 -0.040048674 -0.034293711
0.042407997 -0.075915888 -0.026721001
-0.019416476 -0.053083587 0.14703369
-0.11296012 -0.043714717 0.040636972
-0.32089514 0.079523712 -0.001109124
-0.28242508 -0.027267158 0.064617909
0.0089080231 -0.078284487 -0.026721001
-0.040860001 -0.014886789 -0.026430724
-0.097838491 -0.085889101 -0.0055501824
-0.020258546 -0.013674336 -0.024850607
0.0039359257 -0.059232906 -0.04003191
-0.28432792 -0.018633908 -0.0099104363
-0.33994329 -0.018990163 0.12888221
-0.07883393 -0.083899438 -0.029143602
-0.23355596 0.031926595 0.008127003
-0.10279211 -0.047866419 -0.25657916
0.021566276 -0.067873649 -0.10088302
-0.2206658 0.026894148 -0.015110153
0.072375365 -0.095910341 -0.098964646
-0.016827978 -0.11417239 0.07608448
-0.062678024 -0.05473996 -0.15678842
-0.065224163 -0.066063955 -0.072452217
-0.061197042 -0.062542483 -0.09003716
0.086843356 -0.077034369 0.13168809
-0.094194636 -0.05792056 -0.1990927
0.12662297 -0.0071123876 0.01275957
0.055768095 -0.10186902 0.11869365
-0.02791173 -0.069939964 0.081187181
0.008578429 -0.059188463 -0.048172109
-0.0050519705 -0.055133253 0.039661348
0.30405432 -0.01605477 -0.012732822
0.011731487 -0.054068346 0.10869242
-0.22502244 0.023320727 -0.011250987
0.0040175598 -0.082513243 0.033764947
0.10882529 -0.036555648 0.039694376
-0.11140178 -0.059288442 -0.038271431
0.032013349 -0.056211468 -0.066394895
-0.10396208 -0.054126248 -0.25612473
0.046357289 -0.074236028 0.111371
0.10081671 -0.066972785 0.1115817
-0.053847589 -0.053811766 -0.15837935
-0.030281642 -0.061820209 0.16033942
-0.030222725 -0.073870741 0.026721001
-0.075468242 -0.034426991 0.039214555
0.1520053 -0.081197314 -0.020312555
-0.2720077 0.074381933 -0.00059052149
0.12969686 -0.08599297 0.0047610812
-0.070964061 -0.056478903 -0.22780736
-0.038834758 -0.10803545 0.058793299
-0.34427387 0.034833238 0.00036049294
-0.24734104 -0.016317911 -0.011621536
-0.043028101 -0.10962734 0.063118398
-0.035775408 -0.0091949413 -0.017787443
-0.085762613 -0.055546127 -0.23911412
0.092608973 -0.099793822 -0.12541409
-0.31020454 -0.035768762 0.013728019
-0.032397795 -0.088364676 0.072652712
0.17015569 -0.04872229 -0.040505387
0.080794029 -0.069289804 -0.11218056
-0.25805455 -0.060720149 -0.011328312
-0.044000782 -0.10232794 0.082045346
-0.20525092 -0.014108922 0.0038486626
-0.16195554 -0.013057204 0.020677762
0.12017401 -0.025721248 0.035608478
-0.1074229 -0.056518897 -0.21505924
-0.095567286 -0.084632382 0.012019146
0.06653893 -0.072894126 0.058768339
-0.083785035 -0.057599083 0.20968699
-0.0083319414 -0.059788398 0.11254296
-0.099151038 -0.054914303 -0.19042343
0.063579381 -0.073883347 0.05905766
-0.068055257 -0.084562846 -0.027270481
-0.32763153 -0.029987849 -0.080358177
-0.2662065 0.031010306 -0.0061467527
-0.080313459 -0.049948376 -0.21827248
-0.011967298 -0.063497432 -0.026721001
-0.026672166 -0.023490742 0.034056872
-0.25062525 -0.026176851 0.067919262
-0.26665807 -0.023895141 0.080647655
-0.19232163 0.02580191 -0.010437081
-0.27743018 -0.045309514 0.0086818105
-0.26364231 0.0030895011 0.01119111
-0.043821901 -0.10818703 0.070709467
-0.074637808 -0.038181618 0.039908379
0.11581084 -0.065201201 -0.035822079
-0.038526312 -0.061217818 -0.16757993
-0.048655976 -0.11458603 -0.074704781
0.051113658 -0.057113752 0.078578368
-0.1982206 -0.014556016 -0.0010678601
-0.17642388 -0.0087397732 -0.0061149597
0.0074342396 -0.084039837 0.02019516
-0.087887898 -0.061584018 -0.13025247
0.031884849 -0.0079154167 0.014698309
-0.10290562 -0.056517176 0.21820958
-0.2456176 -0.036506124 -0.026327517
-0.1127445 -0.0069755297 -0.012429156
-0.021105861 -0.075416416 0.04493691
-0.064566568 -0.077810153 -0.038815439
0.002117198 -0.068687454 -0.11628863
-0.22186793 -0.0026465007 0.010436928
-0.0027222547 -0.056177475 -0.087865986
0.28745061 -0.041145884 0.035933122
-0.31115875 0.047823299 -0.0010878154
-0.036153331 -0.070920385 0.071973518
-0.094910875 -0.058729086 0.15840057
-0.031645261 -0.10731092 -0.063457817
-0.165631 -0.084406704 0.0024990623
-0.025118867 -0.058271479 -0.086299971
0.11085043 -0.0064871241 -0.011250008
-0.22966072 -0.031070726 0.029538848
-0.029139867 -0.10034137 -0.068280779
-0.31442648 0.066335827 0.0013072244
-0.30013973 -0.036191151 -0.054117553
-0.25962448 0.012182263 0.01988166
-0.02103501 -0.062959604 -0.11260012
0.014277041 -0.012063785 0.022751672
0.15555729 -0.0048973085 -0.00059983891
-0.20522729 -0.066946588 0.023812082
-0.25806263 -0.020943351 -0.0041225934
-0.087362871 -0.0090246256 0.017376255
-0.21046332 -0.023706866 0.0050979755
-0.16777107 -0.054545682 -0.037429035
0.091601104 -0.066127963 -0.12817928
0.038035437 -0.058751825 0.028248381
-0.25511634 -0.034938797 0.06396839
-0.11465434 -0.047361199 0.26958978
0.027699292 -0.062770545 -0.026721001
0.0033247375 -0.056218028 -0.083572015
-0.024608143 -0.060606364 -0.06625431
-0.021213798 -0.063852474 0.13356094
-0.1275104 -0.054907378 -0.22690642
0.26673192 -0.072537661 0.029063748
-0.15592851 -0.0475269 -0.30581474
-0.19909985 -0.010392076 -0.0047543519
-0.21710309 -0.020429797 -0.022227857
-0.0015234528 -0.062216774 -0.026721001
-0.26467693 -0.026478693 0.063710481
-0.19952948 0.011855645 -0.014231581
-0.13338853 -0.035047423 -0.039118316
0.015717171 -0.021162748 -0.032270532
0.15300323 -0.016330507 -0.02831223
-0.25072867 -0.036161184 -0.059901245
0.12187794 -0.086366385 -0.0019249816
0.20624465 -0.030787293 0.037686691
-0.17855036 -0.082423478 -0.0056140218
0.2349145 -0.074877366 0.028579794
-0.18390682 -0.011285764 -0.013154271
-0.025434077 -0.084343806 0.028934466
0.08300674 -0.064663008 0.041657556
-0.038192153 -0.062989384 0.041587934
-0.18955861 -0.041840781 0.035428204
-0.30500349 -0.01980358 0.0043965289
0.02812067 -0.092934936 0.12109123
0.14196414 -0.065822951 -0.03556459
-0.19214353 -0.010384025 -0.0090230517
0.060995948 -0.0094662895 -0.018442556
0.035563618 -0.028251894 0.036656864
0.0087967366 -0.072776362 0.069034174
-0.089497238 -0.056757845 -0.22068098
0.12058003 -0.009318524 0.018085809
0.035757031 -0.082698166 0.033354782
-0.022893317 -0.076779149 0.037166148
0.24118409 -0.0107753 0.02072572
-0.30228788 -0.043524221 0.012489645
-0.053650148 -0.056606136 0.13242319
-0.031730309 -0.096673273 0.072055094
-0.18471846 -0.053962737 -0.035416894
-0.28480458 -0.031161962 -0.081780747
0.04461056 -0.07584665 -0.11712836
-0.058479108 -0.065563358 0.10376802
-0.20118237 0.025186507 0.01061397
-0.015473244 -0.070512652 -0.08013577
-0.2366183 -0.012755028 -0.00043032866
-0.25856298 -0.063053273 0.0031617593
-0.22035456 -0.067066811 0.01848585
0.094370358 -0.085780591 0.13290298
-0.28414869 -0.028370153 -0.094987996
-0.03873159 -0.053360522 -0.15279748
-0.016935481 -0.069534808 0.086508475
-0.3172088 0.044044595 0.00044809794
-0.33482572 0.11560352 -0.00057101436
0.30179912 -0.01471124 -0.010589921
-0.28773949 0.039372969 -0.0024744621
-0.3226743 -0.017086321 0.13213249
-0.045964092 -0.089139357 -0.00072156184
-0.12637115 -0.055392366 -0.03957703
-0.044751678 -0.064556926 -0.11772667
-0.33473319 -0.020062173 0.1220772
-0.076837875 -0.016845601 -0.028957853
-0.15532321 -0.021360571 0.030561911
0.2690753 -0.078489363 -0.021955807
0.16620159 -0.079927623 -0.022030622
0.33462417 -0.057854999 -0.023601331
-0.12185917 -0.054556422 0.23977569
0.34583333 -0.060830753 0.017013308
0.26726431 -0.062199593 -0.035644658
-0.023124393 -0.059788398 0.11423826
-0.33222881 -0.018153643 0.13901243
-0.047503687 -0.11133519 0.0062042056
-0.029756837 -0.076249763 9.0651854e-05
-0.026678124 -0.058757138 -0.08370661
-0.32847947 0.087283313 -0.00079236348
-0.26199564 -0.042327311 0.0086818105
0.032547537 -0.043907039 0.040662289
0.20876378 -0.075388774 0.027938839
-0.25845796 -0.0054638027 -0.0080259535
-0.042930532 -0.066256419 -0.041651819
-0.23976164 -0.02992972 0.03803274
0.047769308 -0.077789731 -0.038831104
-0.21824403 0.022833714 -0.017708503
-0.041447558 -0.036976885 -0.039749779
0.076111458 -0.074958719 -0.026721001
-0.036265388 -0.062296584 0.069392025
-0.21946476 -0.032102205 0.031467997
0.23836599 -0.084545761 0.01220933
-0.065831393 -0.0055664829 -0.0056825243
0.2530618 -0.10901177 -0.00761302
-0.0055891462 -0.015377155 0.027069788
0.12182274 -0.006840596 -0.012103387
-0.35713461 0.012736556 0.0067879446
-0.31363764 -0.036823425 0.012405621
0.055063151 -0.10065868 -0.10713026
0.36416328 -0.046042427 -0.0012308098
0.25089824 -0.10816173 -0.0065715099
-0.067844622 -0.065234981 0.080361262
-0.073227473 -0.075360194 0.031088175
-0.018577652 -0.06076207 -0.059414901
-0.25441465 -0.034325879 -0.018281557
-0.1922507 0.016448025 -0.01834663
-0.24187738 -0.033762801 -0.016049311
0.036155775 -0.070468083 -0.026721001
-0.089289576 -0.023339562 0.033940863
0.24189119 -0.087187886 0.0069480981
-0.0021741248 -0.064637721 -0.12575381
0.0095552281 -0.062878788 0.13250299
-0.13024503 -0.03106657 -0.037589047
-0.22627503 -0.054879323 -0.026944462
-0.24049668 0.027331378 -0.0044306568
-0.055301983 -0.068532348 -0.08310172
-0.022951109 -0.062342566 0.15402247
0.20129281 -0.0865364 0.00063333398
-0.10974072 -0.053151648 0.21483873
-0.33264968 0.10357874 0.00072908186
0.064786412 -0.080202945 0.026721001
-0.27044165 0.063643016 -0.0024467506
-0.021235116 -0.10612389 0.065405406
0.032291405 -0.072430313 -0.026721001
-0.14632197 -0.051980987 -0.26569971
-0.032603972 -0.093134984 0.06511005
-0.09622816 -0.059965208 0.15861847
-0.022007726 -0.067720115 -0.097794667
0.0111124 -0.090383261 0.11475667
-0.059318855 -0.053465378 0.22332288
0.0394678 -0.085542485 0.008182806
-0.021867668 -0.10635868 -0.079056501
-0.14429788 -0.05053867 0.27233592
-0.092081316 -0.055806704 -0.23440474
-0.031763025 -0.067453101 0.042255692
-0.081388578 -0.082899883 0.016202284
0.1986016 -0.0056327223 -0.0061856434
0.083279274 -0.073438853 0.098908633
0.052190747 -0.10044548 -0.12090452
0.096161202 -0.092088342 0.12498483
-0.064316221 -0.049872704 0.21184605
0.26449272 -0.023786616 -0.032233942
-0.10106937 -0.015902031 -0.027753824
-0.018965315 -0.053039417 0.14757121
-0.23489624 -0.027413603 0.0249968
-0.20855513 0.028234169 -0.0055975677
-0.24567401 -0.047433365 0.025725992
-0.26701859 -0.036984898 -0.01016905
-0.033340558 -0.073632702 -0.053168207
-0.33800012 0.021972958 -0.0014785167
-0.035436112 -0.063478447 0.1354043
0.26564446 -0.019595629 0.028911173
-0.049305551 -0.082089052 0.082014069
-0.25266236 -0.039715596 -0.0101385
-0.04839116 -0.10395484 -0.075599611
-0.041942701 -0.066093341 -0.041511066
-0.00080453092 -0.07410413 0.058641169
0.18017901 -0.073507123 -0.029790698
-0.11292888 -0.052148357 -0.040054459
-0.08722017 -0.058943413 -0.18555835
0.086037137 -0.0060377847 0.0092622275
-0.024417045 -0.11040609 -0.066315837
-0.28206527 0.011846898 0.019032549
0.072167501 -0.10367068 0.11580767
-0.24113435 -0.02010222 -0.0049669859
-0.095220603 -0.056418113 -0.22373869
-0.0255286 -0.10141419 -0.075513907
-0.25296727 -0.048344411 -0.023731031
-0.13417943 -0.045981504 -0.29788876
0.036502957 -0.069288053 -0.1172048
-0.018763758 -0.070981793 -0.026721001
-0.25588557 -0.032414455 0.028138364
0.11773015 -0.0089683803 0.017240463
-0.085651539 -0.081641659 -0.03282671
-0.26363474 -0.0024527232 -0.012938168
-0.038274914 -0.069419324 -0.082049876
-0.078581139 -0.048584417 0.23728657
0.22334515 -0.081822351 0.018792018
-0.040465523 -0.063482851 0.11490827
-0.3058579 -0.035402518 -0.057065193
-0.17622425 -0.035461098 -0.036297604
0.094783738 -0.079367757 -0.13215043
0.095154226 -0.030786125 -0.037706543
-0.22392198 0.028714573 0.00075424457
0.074387245 -0.077687941 0.026721001
-0.27798605 -0.058179699 -0.00071824418
-0.30410713 0.018290643 0.015698362
-0.081676498 -0.056365788 0.16124496
0.15710767 -0.083152272 0.015592268
-0.025082108 -0.10975039 -0.069274858
-0.28602606 0.0010799133 0.010395433
0.0070972769 -0.078678675 -0.038148981
0.05230939 -0.056495767 -0.054238703
-0.042109992 -0.10905156 0.0025145253
-0.22858717 -0.015478022 -0.013296351
-0.087933674 -0.061668225 0.03935932
-0.19462886 0.024141356 0.01163313
-0.24855229 -0.03435161 0.013573963
-0.32223427 -0.01899505 -0.13715209
0.0087341266 -0.057674404 -0.063223131
-0.27633017 -0.0024870422 0.0025935753
-0.07109303 -0.061165489 -0.15684061
0.05063621 -0.077319205 0.044061154
-0.11560453 -0.023195239 -0.033830125
-0.079287484 -0.065186903 0.093018964
0.10479391 -0.089442745 -0.1295941
-0.12539409 -0.045946687 0.29331321
-0.26666078 -0.029315492 0.048212744
-0.078699969 -0.073817641 0.036977462
-0.16580251 -0.0081608146 0.0071765287
0.28914398 -0.014534638 0.016248127
-0.13083032 -0.04972038 -0.30913979
-0.32189971 -0.028209921 -0.091229022
0.12540331 -0.046545178 0.040792104
0.16214645 -0.024496438 -0.034828573
0.067132495 -0.072245635 -0.11114399
-0.042130619 -0.104702 -0.081274085
-0.069961272 -0.048972026 -0.040472634
-0.061716452 -0.084065773 -0.030052982
0.067985184 -0.10149538 0.10579656
0.25156504 -0.049976185 -0.039841391
0.032478899 -0.069946483 -0.088507652
-0.0040047565 -0.0655967 -0.11583229
0.025494039 -0.075236887 -0.11063697
-0.30200934 -0.0170669 0.13249005
0.084776431 -0.0057021766 -0.0067131789
0.061648343 -0.069021836 0.1048607
0.073643535 -0.082847863 -0.017317303
-0.11706917 -0.05255881 0.22695231
-0.31728843 0.022039743 0.011089326
-0.028590068 -0.08376126 -0.0701226
0.26163623 -0.015028181 0.024161341
-0.2588914 -0.014741717 -0.0037696559
-0.31533962 -0.027957853 -0.079201832
0.10240237 -0.039373305 0.040065289
-0.070231393 -0.065212846 0.10208128
0.32307807 -0.062737785 0.025488546
-0.033521287 -0.078052245 0.052580208
0.07218954 -0.057056032 0.038370647
-0.0076414952 -0.062096871 -0.15157518
-0.3429696 0.11587657 0.00036230168
-0.30424681 -0.027596703 -0.074599043
0.24369419 -0.11048386 -0.0064495653
-0.052420095 -0.084987886 0.0116544
-0.086160868 -0.055694111 -0.17095518
0.26573089 -0.0098125888 -0.014383597
0.18498144 -0.016016152 -0.027902555
0.29607257 -0.029029302 0.030299541
0.2270411 -0.024828287 0.03492998
-0.31489792 0.067442432 0.0012994822
-0.27061334 0.0060135415 0.013222978
0.049411397 -0.085738152 0.13090974
0.040895317 -0.082138397 0.034253336
-0.053822491 -0.06807863 0.086903155
-0.26880619 0.066524677 -0.0018475561
-0.27691522 -0.034900412 0.0260264
0.25216216 -0.094556838 0.00072879909
0.082010172 -0.065129228 0.1136684
0.078243792 -0.0059715211 -0.0087589733
-0.18441725 0.021010302 -0.015507713
-0.058038224 -0.077593163 -0.082466155
0.07372275 -0.088030055 -0.095557027
-0.040202737 -0.05737146 0.10708724
-0.1813197 -0.069862708 -0.02761377
-0.32180297 0.00053346023 0.012431366
-0.17003196 -0.0093675107 0.011274671
-0.12138993 -0.058652356 -0.038534921
-0.27904007 -0.03873283 -0.020921726
-0.024171079 -0.067555092 0.083097421
0.21206969 -0.04148085 -0.040307634
-0.13328151 -0.045078121 -0.30964106
-0.017435342 -0.0080963084 -0.015135033
-0.33213598 -0.0019183354 0.0044319145
-0.26170856 -0.029047072 0.084300816
0.0083863903 -0.054274201 -0.13131791
-0.29370511 0.050496683 0.0022658515
0.1046748 -0.057223331 -0.039126769
-0.24110958 -0.033541113 0.015824735
-0.14233989 -0.048994757 -0.28031909
0.04188066 -0.071575277 -0.10700613
0.3498731 -0.068885803 0.0031529143
0.22140181 -0.0061572995 -0.0092725381
-0.27975076 0.013282499 -0.018988036
-0.28638572 -0.029261885 -0.058092922
-0.059505232 -0.083029389 -0.017755592
-0.10649375 -0.050836105 0.22994289
0.27919716 -0.009999739 0.010065237
-0.30326128 -0.039399885 -0.03637353
0.058159545 -0.066212058 0.075929999
-0.13547957 -0.052558765 0.2482065
-0.30928791 0.033577375 -0.0027015321
0.079999387 -0.095981777 0.12979525
0.073448874 -0.063110404 0.026721001
-0.071913257 -0.04939286 -0.23561843
-0.00015294552 -0.068771832 0.093932845
0.3320004 -0.030361604 -0.01832721
-0.061894212 -0.057608306 -0.21361564
-0.088631511 -0.050446354 -0.21844546
-0.14526573 -0.020725675 0.030842006
-0.08310315 -0.0068693366 -0.012172775
0.27428713 -0.027292203 0.033629887
-0.22121969 -0.028038215 0.027156023
-0.043536276 -0.11062982 -0.0070540681
-0.18860923 -0.069944769 -0.025709474
0.143709 -0.058424354 0.038629159
0.22564779 -0.058193095 -0.038677625
-0.029046016 -0.10696308 -0.070389457
0.025683872 -0.079865769 -0.10526565
-0.009305574 -0.055855084 -0.096331991
-0.29621056 0.043280534 0.0020373813
-0.24370827 -0.041502934 0.026969861
0.22250988 -0.081280798 -0.020099789
0.0064505851 -0.086785525 -0.1144246
0.067193091 -0.077498741 0.026721001
-0.052865852 -0.05205185 0.1768308
-0.29191017 -0.051727898 -0.0098619601
0.080473781 -0.0098580634 -0.019388411
-0.24102989 0.003221056 -0.010539547
0.13648103 -0.034162782 -0.039105102
-0.26262605 -0.038935632 -0.046262015
-0.13379461 -0.080385372 0.021353364
-0.054268569 -0.084513165 -0.027647922
0.23404685 -0.0095532527 -0.018167483
0.15371706 -0.056180842 -0.039523415
-0.17700197 -0.07374239 0.024823433
0.060765535 -0.068842329 0.070780888
0.024894057 -0.071027659 0.081698902
-0.33013541 0.016470488 0.010611693
-0.070502907 -0.05930306 0.1879082
-0.34364218 -0.017316421 0.14202085
0.0061883908 -0.071815848 0.074957013
-0.092087805 -0.056791969 -0.21905611
-0.27211091 0.026342785 -0.0028787744
0.064985432 -0.086365148 0.0019341267
-0.020747304 -0.10976909 0.072035007
-0.040492989 -0.073736273 0.049902156
-0.22202584 -0.016799852 0.016721025
0.25546628 -0.10922579 0.0040858109
-0.11926437 -0.047330737 -0.27305415
0.30107293 -0.078176796 0.01453765
0.19769926 -0.086545974 -0.00056088844
-0.041311376 -0.10146756 -0.010908674
-0.31990802 -0.0180769 0.14008029
-0.10215333 -0.047831051 -0.25671622
0.24617961 -0.0076095588 0.013113874
-0.20566025 0.0006327001 0.012817495
-0.22278671 -0.047418468 -0.029950887
-0.32271856 -0.0031685147 -0.0086005228
-0.045761686 -0.10087125 0.075886443
0.058425345 -0.067452595 0.10936142
0.11638753 -0.0083887121 -0.015840977
-0.03401649 -0.06444411 0.041859623
-0.048264135 -0.0066827894 0.011722399
-0.32842934 0.060789209 -5.4550797e-05
0.2192705 -0.052136194 -0.040010192
-0.05981775 -0.0099985758 -0.019727647
-0.086852096 -0.055837329 -0.23502688
-0.2786839 -0.023201965 -0.016059987
0.23889689 -0.020654783 0.031655993
-0.096812859 -0.05719921 0.22312613
-0.14327033 -0.0069106026 0.008436529
-0.3256202 0.028825959 -0.0020807246
0.28498614 -0.051834513 0.036392961
-0.08271046 -0.086570919 0.00037112841
-0.28694111 -0.022759866 -0.092200369
-0.085341699 -0.04873129 0.25362566
-0.047253672 -0.10882635 0.00086491427
-0.0421817 -0.020870628 -0.032046378
-0.3300519 -0.025891179 -0.096025653
-0.25428778 0.00076412148 -0.015819617
0.050371367 -0.072147861 -0.11125319
0.24384789 -0.066643097 -0.034996901
-0.070986837 -0.066926166 0.17228788
0.17034993 -0.058542948 -0.038580261
0.0058263857 -0.067858435 0.11646409
-0.013823085 -0.024958769 0.035183329
0.036034796 -0.0059801582 0.0088245161
0.022004731 -0.022545964 -0.033331912
-0.30412358 -0.0050608744 -0.0074116364
0.098703101 -0.069267236 -0.12402984
-0.014248412 -0.063648671 0.13737001
-0.26471981 0.0012018608 -0.0093653305
-0.26224703 0.0033589078 0.011351205
-0.03482531 -0.085180327 -0.001678459
-0.041880354 -0.081021719 -0.0027081529
-0.2943275 -0.030532757 0.017969927
-0.080882698 -0.085386947 -0.0093642334
-0.2659122 -0.033909205 -0.069906749
-0.029165298 -0.08450003 -0.022562876
-0.043867543 -0.090805911 0.001146207
-0.1833746 -0.0092228558 0.005660607
0.074281506 -0.085755304 -0.0065664384
-0.24459323 -0.034117896 0.013302568
-0.0037551178 -0.066170424 -0.1123938
-0.27918035 -0.038385779 0.020941958
0.23369658 -0.067875937 -0.034065526
-0.20511276 -0.035037976 -0.03225252
0.10255824 -0.07120461 0.11916272
-0.05250752 -0.076059103 0.026721001
-0.069095425 -0.055405803 -0.15689027
0.060379159 -0.079442114 0.033357494
0.10367091 -0.0065159439 0.011319585
0.12234371 -0.039863881 0.040129866
-0.30092758 -0.033010256 -0.049412467
-0.062792324 -0.068745136 0.052923065
-0.071942307 -0.071765348 -0.042452142
-0.06090894 -0.025923684 0.035692323
-0.036931463 -0.064310364 -0.041842021
-0.19638993 -0.00047109099 0.010041436
0.21563676 -0.047595117 -0.040617384
0.049689911 -0.084261999 0.020754885
-0.015420771 -0.10683474 0.065279968
0.014377278 -0.06348756 0.12602289
-0.28795984 -0.034945846 -0.062832229
0.080164224 -0.008445424 0.015977899
0.22225671 -0.025281386 -0.035306547
-0.27599365 -0.034798045 -0.065040223
-0.051162887 -0.050707936 -0.19449845
-0.026723422 -0.063807033 0.040999357
-0.24969211 0.0017536171 0.0092344005
-0.04031172 -0.089631155 -0.0023335298
0.053168926 -0.068781517 -0.10795764
0.015765389 -0.085248157 0.010418377
0.0120383 -0.049527351 0.040399514
0.015966067 -0.067833021 0.10102206
-0.18631254 -0.073297299 0.022341656
0.15570913 -0.027438719 -0.036319923
0.043493979 -0.0099486653 -0.019607149
-0.043790273 -0.041202493 -0.04030614
-0.29407996 -0.028955149 0.090196125
-0.25679633 -0.032096002 -0.023875136
-0.0036256798 -0.063862048 -0.041783012
-0.14013058 -0.051042505 0.29068029
-0.32166672 0.0098593188 0.015678043
-0.18621451 -0.064680286 -0.030353813
-0.34822813 0.016981006 -0.0050184457
0.15526488 -0.023296047 -0.033907473
-0.031191258 -0.069187216 0.085692346
-0.28920734 0.017552977 0.013153669
0.035790727 -0.057571597 0.045399874
-0.28759933 -0.040123515 -0.010215928
-0.1103377 -0.065030679 0.222655
-0.2071573 0.014691827 0.019320477
-0.23225394 -0.067585453 -0.012182131
-0.13474564 -0.08629401 -0.0024746819
0.29002398 -0.079925105 -0.014316332
-0.058188189 -0.05613967 -0.21908484
-0.014478694 -0.10783673 0.059869617
-0.29357326 -0.039834589 0.035163231
0.1689239 -0.084027052 0.013480432
0.032950085 -0.060841411 -0.10814893
0.036371913 -0.058285173 -0.034494396
0.057862476 -0.077771053 0.038845439
0.27289465 -0.04070399 -0.038185105
0.15345046 -0.067983471 -0.034029167
-0.26859555 0.045336407 0.0031338301
-0.1256327 -0.019956011 0.031266224
-0.32806554 0.022724988 -0.000389972
0.21535268 -0.056944132 0.039215297
0.34906214 -0.034840457 0.0012128209
-0.31236902 -0.026640449 -0.10086574
-0.27432376 0.0034169219 -0.017324643
-0.11779497 -0.047887776 -0.29627395
0.16890219 -0.072474547 -0.030583022
-0.29787326 -0.021370314 -0.011614238
0.10062676 -0.093775176 0.12997466
0.0077965213 -0.055287149 0.092139356
0.35833535 -0.059637994 0.0090977419
-0.041804045 -0.072891295 -0.05565124
-0.32108217 0.025717601 0.0023016017
0.027001563 -0.073609821 -0.065634981
-0.072990894 -0.060494095 0.11866274
-0.30255961 -0.040564161 0.018893436
0.040070549 -0.04219006 0.040436205
0.083549947 -0.066413939 -0.026721001
0.10271475 -0.05646706 0.039440081
-0.1100147 -0.049972314 -0.24042548
-0.013331149 -0.058805373 0.070945613
0.19593398 -0.065694936 -0.03561762
-0.19269907 -0.019317631 -0.024626633
-0.084008671 -0.02013232 -0.031479854
-0.031471334 -0.11014716 0.062021635
-0.074674726 -0.058449846 -0.19957876
-0.26266104 -0.042597488 0.026828421
0.088269569 -0.06759873 -0.026721001
0.036683153 -0.06155239 0.0409927
-0.27988732 -0.042041395 0.020332348
0.0065076388 -0.07870435 -0.032306656
-0.072821513 -0.01482646 0.026352098
-0.051169023 -0.064882495 0.063955352
-0.23448792 -0.026697498 -0.0027885912
-0.031513177 -0.061107889 0.069645002
-0.028345777 -0.0059108124 -0.0082978653
0.047043238 -0.092028618 0.12880225
-0.049226929 -0.051544927 -0.20881486
-0.28984803 -0.019324696 0.010114699
-0.012812501 -0.07387162 0.057493143
-0.11855157 -0.053369977 0.26283142
-0.12878579 -0.065173656 -0.035754725
0.0096317185 -0.0854965 0.1217732
-0.21313712 -0.0266975 0.00053665601
0.16512585 -0.072752908 0.030369427
-0.07923761 -0.042186692 0.040435765
-0.044234429 -0.0051099509 0.0022146541
0.011243403 -0.0058560185 0.0078815818
-0.0027106665 -0.02374492 0.034251913
-0.34844536 -0.015058229 -0.15141994
0.15131463 -0.07051412 -0.032087386
0.094818473 -0.064209111 0.028658975
-0.26497084 -0.028725453 -0.052274369
-0.3136656 0.057297617 -0.0011694082
0.24584234 -0.085227966 -0.010367177
-0.19675022 0.0044660908 -0.0097740507
0.075682789 -0.099254295 -0.12674776
0.046612717 -0.057485409 0.086780772
-0.062287308 -0.010887043 -0.021218095
-0.047945552 -0.063902587 -0.066716075
-0.310451 0.08250834 0.0015727109
0.15517588 -0.085891008 0.0055354941
-0.21327834 0.020819509 0.018428965
0.011112399 -0.07871604 0.11140542
-0.071874171 -0.032623768 -0.038467646
0.15059476 -0.0050058747 -0.0014244511
-0.025511794 -0.066943951 -0.070933744
-0.07253252 -0.051085398 -0.2003095
-0.11820061 -0.010544533 0.020771723
-0.099096708 -0.057253253 -0.1735276
-0.049162835 -0.11483015 -0.075226799
-0.25387478 0.0036005452 -0.011257827
-0.11489756 -0.055009965 -0.20730795
-0.025590668 -0.067020059 -0.10186602
-0.23129474 -0.05912051 0.023027161
-0.27619031 0.027176563 0.011652403
-0.01070907 -0.060326196 0.055303697
0.31914219 -0.069100201 -0.021608882
0.23993748 -0.080507323 0.021237625
-0.06724111 -0.047823787 0.04062381
-0.076956049 -0.063538559 0.10060406
0.0096649285 -0.084230117 -0.012990486
-0.25588793 -0.030575871 0.037877265
0.00075958605 -0.061469629 -0.029522631
0.045771077 -0.069761418 -0.10876542
0.25806919 -0.082800016 -0.014865668
-0.031548504 -0.05506625 -0.12908947
0.0065775714 -0.060179643 0.14026049
-0.0015799135 -0.0619682 0.027018562
0.096161202 -0.083066955 -0.10288639
0.073665172 -0.065824136 0.11629158
-0.22238308 0.027139243 -0.0067906627
-0.046528812 -0.059976459 -0.18349388
0.21481784 -0.007770502 -0.0141515
-0.35324886 0.030164918 0.00056602753
-0.33539408 0.11541337 -0.00056316622
-0.27164963 -0.033840969 0.068441145
-0.32993582 -0.026884828 0.094890326
-0.083460748 -0.058150761 -0.20097287
-0.076616153 -0.068936631 -0.041827194
-0.064733751 -0.055450998 0.15250085
0.10457724 -0.014190041 -0.025522692
-0.29529035 0.060320828 -0.0022217412
-0.040980961 -0.1025691 -0.059283599
0.33441275 -0.030960839 -0.016998596
0.27681613 -0.084359497 -0.0034073393
-0.1303886 -0.067324936 0.034456927
0.096161202 -0.086179927 0.12456685
0.045601331 -0.073805988 0.11136974
-0.27816921 0.025643783 -0.01339536
0.023943169 -0.057369031 -0.055667803
0.32365429 -0.063901685 0.024448723
0.0815669 -0.088541999 -0.13309941
-0.27543849 0.024887333 0.0066674044
-0.18885803 -0.055899072 -0.033980746
-0.072066166 -0.05265398 -0.18389043
0.0046693683 -0.024995223 -0.035211302
-0.24816376 -0.026032191 -0.022338629
-0.28192773 -0.043383222 0.019212728
-0.23812021 0.0131456 -0.014621781
-0.22311869 -0.033818729 0.02929021
-0.023092177 -0.060959447 -0.061997857
-0.0061433171 -0.073483847 -0.061747834
-0.27734691 -0.025991444 0.069604732
0.12763999 -0.080531046 -0.021244194
-0.02872676 -0.06608092 -0.10761803
-0.13364929 -0.010623213 -0.02001309
-0.13812363 -0.085252777 0.010383653
0.056941506 -0.07720226 -0.045009241
0.30121446 -0.065019511 0.029378485
-0.19957201 -0.036868755 -0.033305906
-0.21439418 0.0038224864 0.016332552
-0.23308061 -0.055580489 -0.025144568
0.096161202 -0.08984074 0.12764725
-0.10291213 -0.042609662 -0.040491458
0.056255478 -0.10234624 0.11550698
-0.2461572 -0.027589131 -0.066998452
0.026049469 -0.078056291 -0.037911966
-0.28690934 0.06401442 -0.0024277568
0.053632174 -0.073900498 0.064593598
-0.24395007 -0.025224138 0.022285378
0.23267108 -0.0059941881 0.007520888
0.073015168 -0.078961566 -0.096143097
-0.22897482 0.0071374839 -0.018708173
-0.022126105 -0.060121756 -0.068089455
-0.11459225 -0.052981418 0.27035457
-0.30707094 -0.024962988 0.10830851
0.26270846 -0.081048302 -0.018532312
-0.2456398 -0.024013635 0.02112909
-0.060342446 -0.075238563 -0.035607062
0.023219069 -0.055817135 0.076197274
0.21937419 -0.077688657 0.024931164
0.059935376 -0.083084881 -0.017889574
-0.057069808 -0.072610527 -0.051379457
-0.33934873 0.033146761 -0.0013701444
0.033416025 -0.055650678 0.074612767
-0.2064679 0.012351298 0.014336515
-0.037806235 -0.10735756 0.07543724
0.0082674883 -0.05579593 -0.084886104
-0.28189099 0.018923126 -0.012718057
-0.27412236 -0.030188847 -0.086876199
-0.033329844 -0.092789799 0.064823292
0.16069061 -0.010331989 0.020494727
0.035997678 -0.068553947 -0.093701303
0.18866971 -0.0075050909 0.013707667
0.31080493 -0.077984601 -0.0098383427
-0.092939451 -0.061647698 -0.1721081
0.093523353 -0.09204495 0.097159356
-0.13092099 -0.017905718 -0.029419623
-0.093242705 -0.059246063 0.22261162
-0.08889246 -0.061055887 0.14449044
-0.12825836 -0.05316592 -0.23548536
-0.018153982 -0.11450143 -0.06507314
-0.034800388 -0.098564267 -0.073658384
0.0051709767 -0.060305301 -0.036884595
-0.10166565 -0.056654826 -0.21656238
-0.2980592 0.087009974 -0.0017346023
-0.2637977 0.019240545 0.012911957
-0.025513411 -0.063281246 0.046876773
0.027187312 -0.058190301 0.11486918
0.22677189 -0.022184368 0.032902896
0.054615721 -0.062667951 -0.1155607
-0.11114565 -0.055670038 -0.22765616
0.0674458 -0.069752432 0.026721001
-0.22594279 0.02387326 0.017350134
-0.24405736 0.020040294 0.018820176
-0.0031522373 -0.054445997 0.10939524
-0.32212037 -0.029036008 0.076991729
0.2838254 -0.062926896 -0.033249527
-0.21847206 0.015828278 -0.019591134
0.14860621 -0.047346078 -0.04068663
-0.068849258 -0.055110127 -0.23261069
0.089286149 -0.061421052 0.026721001
0.076367453 -0.0779735 -0.11266064
-0.30663824 0.074389577 -0.0017527632
-0.024339948 -0.1045208 0.07754261
-0.092458963 -0.058489524 0.19006979
-0.017126538 -0.073753238 0.057200428
0.018471478 -0.05917456 -0.036893383
0.34041002 -0.066336565 -0.015685506
-0.2863225 -0.02160234 -0.099036969
-0.14716654 -0.047405634 0.29712814
-0.099847093 -0.061862335 -0.037205316
-0.25487125 -0.064253792 -0.0015434538
-0.075738072 -0.051169716 0.20161252
0.15583348 -0.020308539 0.031615071
0.17992985 -0.077908203 0.024662402
-0.13133036 -0.05377486 0.24629971
-0.20361415 0.028011501 -0.013926753
0.027870554 -0.075309925 0.054899439
0.12526816 -0.085507169 -0.0084511098
0.026862573 -0.073629566 -0.065496743
0.23415843 -0.023980921 -0.034236796
-0.1098146 -0.061522514 0.22282283
-0.27493817 -0.053555544 0.014326818
-0.31750119 -0.021052781 0.10980242
-0.15500145 -0.018481445 -0.028383903
-0.28030753 -0.040996134 -0.033452421
0.1031013 -0.092744499 -0.099162832
-0.20317662 -0.01027576 -0.0013332167
0.052887857 -0.073469788 -0.066769727
0.1505729 -0.0053474084 0.0040183207
-0.29719645 -0.020028289 0.1092844
-0.18426199 -0.053659156 0.035532713
-0.06852252 -0.061834097 0.14667377
0.080974467 -0.038450308 0.039943818
-0.11718877 -0.056695968 -0.20200737
-0.17302284 -0.042531036 -0.037646137
-0.34937459 0.016697075 -0.0050015282
-0.012053309 -0.05308814 -0.14498101
-0.2825498 -0.0042818007 0.010283383
0.032906771 -0.025228418 -0.035390243
-0.077118829 -0.053995103 0.17635316
0.21967509 -0.083627097 0.014437022
0.12463681 -0.07016135 0.032358009
0.28122687 -0.017013503 0.022710331
-0.33226833 0.092688233 -0.00066200318
-0.2505942 -0.029500637 0.072924182
0.27118966 -0.07919433 -0.020867974
-0.020456759 -0.063069463 -0.14454548
-0.27259073 -0.027459223 0.060119629
-0.21194541 9.98787e-05 0.0010160616
-0.27234048 0.021868711 -0.010789506
-0.28734422 0.046702519 -0.0025382992
0.081444807 -0.08396323 0.095111854
0.29366136 -0.061063856 -0.032525025
-0.035367802 -0.064825974 0.045962226
-0.11705285 -0.056313965 -0.21017975
-0.13824424 -0.052269913 0.26885855
-0.32992339 -0.0028794946 0.0019133962
-0.26538283 -0.026697502 -0.0002013543
-0.26342785 -0.040943254 0.034924358
0.26750603 -0.070458271 0.00040664297
0.062553287 -0.099349439 -0.12533578
-0.040921722 -0.10572937 -0.075347401
-0.097586423 -0.048022225 -0.25195521
-0.056157954 -0.0054301755 0.0046469928
-0.22337013 -0.072097756 -0.0054445565
-0.19943422 -0.019440001 -0.023724075
0.30308223 -0.076264307 0.017555963
0.09322805 -0.075954728 0.026721001
-0.14488083 -0.051682662 -0.27406064
-0.30928901 -0.038540449 0.031574223
-0.16071092 -0.081718057 0.015631206
-0.31683436 -0.020211037 0.13026431
-0.15404081 -0.072880596 -0.029382363
-0.10499227 -0.02621498 0.035813063
0.25845516 -0.10935894 -0.0083291419
0.23278359 -0.05559279 0.039519936
-0.25776058 0.014233742 0.014463355
0.33556646 -0.072180815 0.0094198594
0.065870009 -0.057504825 -0.05726441
-0.32106081 0.0084514767 -0.013644047
-0.091978259 -0.055956803 0.17504038
0.039777063 -0.092372179 -0.10427501
-0.25098798 -0.025256518 -0.0045115426
0.07971783 -0.10393282 0.11508827
-0.082777858 -0.059860263 -0.17219749
0.15583372 -0.08157824 -0.01939293
-0.32669476 0.033849183 -0.0019220463
-0.10709172 -0.049782082 -0.23966654
0.060152832 -0.082873866 -0.096326888
-0.29948491 0.046896718 0.0018922832
-0.19842216 -0.015605869 -0.0013000821
-0.24099427 -0.028699037 0.05958914
-0.0643984 -0.060467616 0.10724681
-0.052807897 -0.11216401 0.078448512
-0.042856786 -0.090247266 -0.0097588971
-0.030177418 -0.075918324 0.040154681
